-0.557228 0.096035 -0.234146 -0.540197 -0.339680 -0.769938 
-0.468679 0.092940 -0.264735 0.527201 -0.602013 -0.599699 
-0.555043 0.055980 -0.205456 -0.611941 -0.780334 -0.128868 
-0.512704 0.043271 -0.144312 -0.434063 -0.002332 0.900880 
-0.460997 0.098546 -0.272224 0.495757 -0.447021 -0.744579 
-0.409843 0.082513 -0.201531 0.922898 -0.049141 0.381896 
-0.548381 0.073698 -0.147381 -0.770066 0.384149 0.509341 
-0.407600 0.089606 -0.179163 0.774021 -0.349713 -0.527818 
-0.475287 0.180523 -0.223428 0.084579 0.991916 -0.094602 
-0.526215 0.054850 -0.240623 0.130411 -0.830965 -0.540824 
-0.491889 0.174242 -0.232383 -0.501394 0.566514 -0.653961 
-0.501386 0.085282 -0.113129 -0.656553 -0.134363 0.742216 
-0.525738 0.138065 -0.130257 -0.857049 -0.063390 0.511320 
-0.537743 0.160280 -0.211401 -0.945267 0.083929 -0.315319 
-0.417836 0.126438 -0.207244 0.797636 0.181743 -0.575105 
-0.561322 0.081267 -0.190218 -0.931226 0.356282 -0.076691 
-0.555783 0.130225 -0.146710 -0.826253 -0.000054 0.563299 
-0.537436 0.031794 -0.177388 -0.558238 -0.674345 0.483351 
-0.411758 0.113968 -0.154945 0.615756 0.294937 0.730655 
-0.528155 0.100486 -0.114528 -0.163413 -0.001148 0.986557 
-0.570380 0.107572 -0.217344 -0.937235 0.239387 -0.253544 
-0.431723 0.145876 -0.140405 0.515000 0.552883 0.655054 
-0.549618 0.144910 -0.220182 -0.367392 0.923665 0.108928 
-0.544215 0.142552 -0.242652 -0.360814 0.576687 -0.732970 
-0.522623 0.093238 -0.117802 0.184724 -0.364554 0.912676 
-0.550348 0.144623 -0.164942 -0.574765 0.804416 -0.150197 
-0.539618 0.166189 -0.208757 -0.679042 0.733741 -0.022945 
-0.504319 0.178455 -0.208781 0.166113 0.828490 -0.534800 
-0.420020 0.078229 -0.167833 0.838252 -0.523177 0.153688 
-0.519580 0.056156 -0.258045 -0.591935 -0.621757 -0.512865 
-0.556505 0.103015 -0.238553 -0.628725 0.483391 -0.609129 
-0.491388 0.044125 -0.137855 -0.188124 -0.077077 0.979116 
-0.430056 0.089327 -0.136553 0.987971 -0.129865 0.083957 
-0.545674 0.076475 -0.137346 -0.767256 0.219942 0.602448 
-0.486965 0.054438 -0.132015 -0.385269 -0.705641 0.594676 
-0.413710 0.129831 -0.177701 0.547041 0.129798 0.826982 
-0.425315 0.077723 -0.238918 0.703463 0.555004 -0.443971 
-0.458565 0.173289 -0.177655 -0.357890 0.906136 0.225462 
-0.408065 0.140855 -0.192745 0.861144 0.503890 -0.067268 
-0.459645 0.163952 -0.238779 0.654881 0.324684 -0.682431 
-0.522667 0.131820 -0.261287 -0.487089 0.473470 -0.733874 
-0.468319 0.070813 -0.268601 0.218052 0.027000 -0.975564 
-0.464861 0.184187 -0.190946 0.270603 0.781105 0.562716 
-0.547664 0.056136 -0.144896 -0.660696 -0.459727 0.593407 
-0.542510 0.087262 -0.243790 -0.959437 -0.278171 -0.045834 
-0.468035 0.045337 -0.127892 0.124293 -0.911247 0.392659 
-0.567423 0.096720 -0.193248 -0.774766 -0.630835 -0.042263 
-0.445429 0.053153 -0.150170 0.153820 -0.726088 0.670176 
-0.543646 0.049231 -0.234463 -0.559105 -0.693115 -0.454965 
-0.532780 0.079097 -0.247864 -0.267380 -0.690821 -0.671770 
-0.552274 0.129554 -0.142421 -0.783672 0.053598 0.618859 
-0.435031 0.170640 -0.195518 0.777264 0.598715 -0.193393 
-0.407289 0.085498 -0.215341 0.662031 -0.658729 -0.357479 
-0.558719 0.119810 -0.151455 -0.755992 -0.120837 0.643330 
-0.447914 0.109126 -0.265666 -0.193442 0.161519 -0.967725 
-0.437901 0.047862 -0.162553 0.958548 -0.283857 0.024718 
-0.531847 0.024458 -0.189666 -0.448288 -0.893454 0.027885 
-0.453429 0.025780 -0.159387 0.294545 -0.843529 0.449113 
-0.433850 0.156405 -0.199430 0.918512 0.169208 -0.357357 
-0.448705 0.125627 -0.249685 0.774947 0.364423 -0.516385 
-0.466366 0.177521 -0.226020 0.303056 0.941784 -0.145603 
-0.516052 0.025676 -0.219411 -0.555484 -0.803936 -0.212426 
-0.495251 0.017752 -0.167020 0.310378 -0.882904 0.352344 
-0.472012 0.177464 -0.217872 0.458829 0.804222 0.377761 
-0.539934 0.104549 -0.120795 -0.564036 0.182768 0.805270 
-0.552371 0.070912 -0.147984 -0.823185 0.211893 0.526751 
-0.565660 0.129830 -0.195866 -0.974561 -0.187520 0.122746 
-0.477905 0.030597 -0.166579 -0.197401 -0.977059 -0.079925 
-0.491853 0.146851 -0.119083 0.361580 0.658472 0.660057 
-0.482378 0.021374 -0.177494 0.340767 -0.534192 0.773638 
-0.464981 0.029600 -0.194632 0.195851 -0.969576 0.146846 
-0.434022 0.083214 -0.128356 0.273522 -0.650705 0.708357 
-0.405722 0.099779 -0.157815 0.819597 0.001620 0.572938 
-0.526209 0.176558 -0.191848 -0.910923 0.408509 0.057791 
-0.444176 0.136340 -0.246986 0.542071 -0.257999 -0.799747 
-0.487159 0.080099 -0.263406 0.103609 -0.549574 -0.828996 
-0.526664 0.040095 -0.211369 -0.216509 -0.566656 -0.795000 
-0.476108 0.070420 -0.114599 -0.158949 -0.271540 0.949211 
-0.435666 0.170811 -0.184663 0.663781 0.715110 0.219117 
-0.492865 0.184014 -0.202999 -0.306495 0.699309 -0.645776 
-0.419540 0.135012 -0.233080 0.927402 0.065424 -0.368301 
-0.422057 0.055604 -0.212061 0.276770 -0.926599 -0.254584 
-0.462868 0.171573 -0.173114 -0.142882 0.962133 0.232132 
-0.430304 0.037792 -0.205960 0.821010 -0.484660 -0.301741 
-0.561060 0.078371 -0.158660 -0.654410 -0.731913 0.189871 
-0.434149 0.041275 -0.200031 0.271026 -0.927485 0.257520 
-0.554196 0.055566 -0.171080 -0.585732 -0.780395 0.218864 
-0.489926 0.123305 -0.120009 0.362405 0.556039 0.747986 
-0.538625 0.147742 -0.216542 -0.680019 0.730946 0.057379 
-0.517428 0.088332 -0.122246 0.216525 -0.070871 0.973701 
-0.463462 0.163287 -0.241217 0.594828 0.190231 -0.781020 
-0.545501 0.094332 -0.253618 -0.824389 -0.305623 -0.476421 
-0.417618 0.131261 -0.225417 0.939708 0.296449 0.170493 
-0.523089 0.128017 -0.128483 -0.933531 0.251799 0.255182 
-0.430981 0.116022 -0.245222 0.975891 0.186674 -0.113090 
-0.473038 0.173458 -0.143632 0.174681 0.777744 0.603822 
-0.425953 0.101515 -0.129565 0.897804 0.138796 0.417953 
-0.482703 0.126028 -0.121162 -0.405324 0.329350 0.852785 
-0.415856 0.066337 -0.205491 0.662013 -0.019988 -0.749226 
-0.428123 0.081565 -0.138255 0.960079 0.114898 0.255043 
-0.409898 0.112233 -0.181174 0.869547 0.136634 -0.474573 
-0.409869 0.121467 -0.195481 0.923544 -0.380301 0.049380 
-0.453683 0.025290 -0.185158 -0.111809 -0.964027 -0.241143 
-0.447629 0.122930 -0.131945 0.619739 0.511619 0.595121 
-0.515092 0.023484 -0.166732 -0.054592 -0.870907 -0.488406 
-0.570366 0.094282 -0.164117 -0.932780 -0.227872 0.279276 
-0.431540 0.112775 -0.140489 0.979743 0.200153 -0.006539 
-0.441055 0.087971 -0.263635 0.424815 -0.353869 -0.833252 
-0.465496 0.130900 -0.270152 0.165833 0.102377 -0.980825 
-0.534631 0.166521 -0.178064 -0.445649 0.762448 -0.469116 
-0.446842 0.090482 -0.265257 -0.064967 -0.260204 -0.963366 
-0.415143 0.140271 -0.170735 0.847741 0.379039 0.371033 
-0.438361 0.044546 -0.188686 0.340819 -0.929648 -0.139990 
-0.470295 0.098117 -0.275308 0.391446 -0.155606 -0.906949 
-0.521340 0.095685 -0.266613 0.016496 -0.373446 -0.927505 
-0.418871 0.089874 -0.228522 0.230742 -0.155467 -0.960515 
-0.550536 0.056913 -0.175925 -0.269772 -0.943599 0.191946 
-0.472832 0.122957 -0.108711 -0.003521 0.195449 0.980708 
-0.509632 0.088982 -0.121979 -0.152928 -0.100911 0.983072 
-0.519753 0.037202 -0.214163 -0.702892 -0.413650 -0.578651 
-0.550207 0.127896 -0.243347 -0.746821 -0.105458 -0.656610 
-0.414741 0.134542 -0.176350 0.688947 -0.199074 0.696937 
-0.495094 0.021525 -0.226703 0.213990 -0.964240 -0.156365 
-0.437284 0.156718 -0.158039 -0.107322 0.963850 0.243877 
-0.421320 0.125535 -0.165578 0.869413 0.481981 -0.108700 
-0.433522 0.043171 -0.184280 0.247189 -0.966152 -0.073814 
-0.545833 0.144294 -0.142855 -0.557110 0.568119 0.605697 
-0.472116 0.019951 -0.187427 0.811299 -0.563916 -0.154249 
-0.560634 0.148250 -0.185436 -0.818720 0.552702 0.155622 
-0.401888 0.104507 -0.170799 0.983278 0.169255 0.067214 
-0.534485 0.145196 -0.137587 -0.290289 0.445699 0.846809 
-0.516537 0.065614 -0.266397 -0.488028 -0.252611 -0.835473 
-0.411363 0.092237 -0.184530 0.671595 -0.572254 -0.470622 
-0.431194 0.047898 -0.150219 0.567409 -0.752142 0.335157 
-0.490502 0.085339 -0.274416 0.122853 -0.676600 -0.726030 
-0.467440 0.044945 -0.253187 0.073972 -0.919704 -0.385581 
-0.447968 0.025100 -0.167092 0.529872 -0.827875 0.184009 
-0.484415 0.175836 -0.215047 -0.663731 0.644165 -0.380149 
-0.555755 0.125777 -0.208222 -0.616464 0.323706 -0.717765 
-0.447370 0.076444 -0.261635 0.785226 -0.435826 -0.439858 
-0.435280 0.156742 -0.226966 0.121595 0.985929 -0.114711 
-0.542684 0.050239 -0.145439 -0.512665 -0.658817 0.550577 
-0.511259 0.028557 -0.210496 -0.095414 -0.976493 0.193279 
-0.463615 0.171067 -0.208683 -0.123662 0.992258 0.011441 
-0.518404 0.036122 -0.153293 -0.812980 -0.574191 -0.096790 
-0.420747 0.083938 -0.229631 0.476070 0.210668 -0.853801 
-0.485850 0.169530 -0.241703 -0.528252 0.682831 -0.504671 
-0.535956 0.114285 -0.259764 -0.466396 0.456407 -0.757739 
-0.545104 0.104635 -0.126552 -0.804837 0.050291 0.591362 
-0.475994 0.160363 -0.245372 -0.080121 0.139651 -0.986954 
-0.560955 0.144625 -0.178512 -0.761109 0.452878 0.464344 
-0.568880 0.072992 -0.185622 -0.982191 0.166423 -0.087206 
-0.541026 0.116376 -0.255404 -0.527046 0.551593 -0.646504 
-0.563607 0.061659 -0.179506 -0.839949 -0.290534 0.458341 
-0.513449 0.038567 -0.143547 -0.484545 -0.203496 0.850768 
-0.479500 0.119031 -0.272958 -0.224995 0.700388 -0.677373 
-0.543429 0.144862 -0.169287 -0.365222 0.922483 0.125051 
-0.460734 0.175361 -0.223770 0.592526 0.785429 -0.178927 
-0.526128 0.122879 -0.256404 -0.780251 0.587422 -0.214809 
-0.514800 0.028107 -0.177622 0.289108 -0.945632 0.148984 
-0.457878 0.100264 -0.110403 0.258009 0.184760 0.948312 
-0.426129 0.151509 -0.154560 0.684534 0.683368 0.253814 
-0.420855 0.067208 -0.210802 0.905465 0.175113 -0.386611 
-0.501713 0.160703 -0.151687 -0.005426 0.593672 0.804689 
-0.459037 0.119737 -0.261709 0.083936 -0.273966 -0.958070 
-0.464491 0.161306 -0.139401 0.570306 0.399087 0.717970 
-0.487625 0.118596 -0.115982 0.150584 0.814663 0.560043 
-0.537631 0.087979 -0.122731 -0.476679 -0.411744 0.776688 
-0.450607 0.023161 -0.175926 0.396029 -0.907763 -0.138303 
-0.417437 0.047660 -0.189857 0.640860 -0.766564 0.040963 
-0.512518 0.025040 -0.214085 -0.127289 -0.991549 0.025064 
-0.482891 0.053838 -0.254530 -0.497361 -0.793397 -0.350931 
-0.474105 0.136388 -0.268146 -0.311058 0.058080 -0.948614 
-0.455698 0.095332 -0.265593 0.144918 -0.621058 -0.770251 
-0.446887 0.033915 -0.227904 0.522360 -0.611100 -0.594725 
-0.467607 0.133711 -0.112325 -0.055295 0.144549 0.987952 
-0.452007 0.161568 -0.168668 0.520755 0.582774 0.623850 
-0.408552 0.108701 -0.226056 0.742485 0.306197 -0.595784 
-0.559733 0.087719 -0.192390 -0.987746 0.151650 0.036868 
-0.459892 0.103030 -0.270637 0.260039 0.453759 -0.852339 
-0.491194 0.172894 -0.221913 -0.358228 0.869930 0.338960 
-0.525103 0.052580 -0.144520 0.174615 -0.626462 0.759641 
-0.513829 0.033584 -0.144207 -0.372676 -0.323723 0.869664 
-0.416868 0.145246 -0.175510 0.474238 0.685116 0.552915 
-0.568411 0.083085 -0.172448 -0.900000 -0.380742 0.212215 
-0.421118 0.068622 -0.171683 0.853247 0.051223 0.518985 
-0.562452 0.109535 -0.183713 -0.684795 0.519582 -0.510970 
-0.411174 0.058983 -0.200550 0.895367 -0.307916 -0.321722 
-0.468594 0.113583 -0.119879 0.608984 0.010033 0.793119 
-0.493869 0.056231 -0.264881 0.267973 -0.792973 -0.547161 
-0.506040 0.027127 -0.146343 -0.333773 -0.757701 0.560789 
-0.456885 0.166656 -0.153637 0.831282 0.513610 -0.212545 
-0.547687 0.122540 -0.134148 -0.604180 0.230553 0.762766 
-0.513667 0.159463 -0.246501 0.181771 0.858248 -0.479969 
-0.417977 0.051745 -0.178057 0.413860 -0.689057 0.594912 
-0.437640 0.097659 -0.264141 0.511244 -0.082555 -0.855461 
-0.434568 0.158805 -0.221014 0.115038 0.924062 -0.364521 
-0.461181 0.105474 -0.263829 0.102703 0.639891 -0.761572 
-0.471556 0.161193 -0.248727 0.036217 0.461253 -0.886529 
-0.444691 0.026850 -0.170941 0.666809 -0.743913 0.044252 
-0.402665 0.103256 -0.197412 0.997550 0.054876 0.043398 
-0.498224 0.169524 -0.153322 -0.327979 0.435854 0.838130 
-0.461564 0.173495 -0.228348 0.586621 0.777175 -0.227760 
-0.480852 0.181400 -0.218494 -0.080896 0.977117 -0.196720 
-0.420239 0.057416 -0.154787 0.760652 -0.623684 0.180075 
-0.528243 0.054937 -0.138992 0.108136 -0.600811 0.792044 
-0.471351 0.163107 -0.134468 -0.148505 0.514725 0.844396 
-0.426753 0.106443 -0.134424 0.864733 0.501930 0.017412 
-0.557204 0.074273 -0.158632 -0.796542 -0.562678 -0.221167 
-0.462929 0.150177 -0.134298 0.522742 0.747028 0.410718 
-0.403769 0.092910 -0.164578 0.908248 -0.260170 0.327714 
-0.500780 0.161553 -0.230171 -0.133048 0.670169 -0.730186 
-0.515303 0.027051 -0.182218 0.401859 -0.882308 0.245033 
-0.439933 0.033711 -0.218779 0.787347 -0.472435 -0.396093 
-0.483467 0.137549 -0.118657 -0.153471 -0.143153 0.977729 
-0.499017 0.158004 -0.147580 -0.317746 0.868968 0.379385 
-0.416458 0.111300 -0.228116 0.236057 0.451937 -0.860250 
-0.477279 0.182476 -0.201501 0.518222 0.732572 -0.441343 
-0.552469 0.141449 -0.234199 -0.744959 0.542046 -0.388872 
-0.538791 0.098733 -0.119682 -0.585105 -0.067335 0.808157 
-0.554578 0.054322 -0.182811 -0.231261 -0.856906 0.460686 
-0.528810 0.160851 -0.191461 -0.752495 0.635820 0.171711 
-0.509937 0.029849 -0.173235 0.177128 -0.937375 -0.299924 
-0.506301 0.155737 -0.240316 0.164073 0.981641 -0.097264 
-0.521887 0.022750 -0.183069 0.081125 -0.934977 0.345306 
-0.436299 0.033274 -0.174702 0.680767 -0.626557 -0.379449 
-0.424032 0.103883 -0.248295 0.878649 0.245060 -0.409782 
-0.551867 0.114581 -0.229229 -0.411533 -0.215606 -0.885525 
-0.493736 0.036329 -0.136882 0.105725 -0.281299 0.953778 
-0.445900 0.028347 -0.183083 0.811563 -0.536639 -0.231052 
-0.526490 0.165131 -0.190587 -0.927058 0.374659 -0.013912 
-0.547525 0.144621 -0.171449 -0.280703 0.807129 0.519373 
-0.554429 0.064256 -0.150066 -0.914920 -0.228257 0.332896 
-0.501311 0.048003 -0.249728 0.355463 -0.785730 -0.506235 
-0.421419 0.121660 -0.153064 0.553167 -0.318156 0.769924 
-0.494488 0.099688 -0.278510 -0.278137 -0.063153 -0.958463 
-0.481926 0.094085 -0.278308 0.138362 -0.175448 -0.974717 
-0.503387 0.050625 -0.125262 0.240396 -0.774879 0.584613 
-0.481997 0.065258 -0.261671 -0.149148 0.260612 -0.953853 
-0.472806 0.150781 -0.131407 -0.331066 0.644956 0.688787 
-0.534379 0.046363 -0.144194 -0.288033 -0.696797 0.656895 
-0.535810 0.051642 -0.242010 -0.076005 -0.660578 -0.746900 
-0.444598 0.096060 -0.266487 0.139837 -0.354839 -0.924411 
-0.489010 0.056800 -0.255102 -0.158182 -0.975454 -0.153190 
-0.424413 0.056352 -0.218190 0.232917 -0.972400 0.013716 
-0.538529 0.109153 -0.261167 -0.579583 0.275862 -0.766801 
-0.419151 0.144904 -0.207317 0.507267 0.810379 -0.293200 
-0.562272 0.116779 -0.228905 -0.507647 0.037056 -0.860768 
-0.435050 0.102604 -0.262557 0.557607 0.046188 -0.828819 
-0.474947 0.029969 -0.153333 -0.052719 -0.478549 0.876477 
-0.443195 0.037205 -0.181706 0.721869 -0.450883 -0.524985 
-0.544095 0.069799 -0.247024 -0.303039 -0.097496 -0.947978 
-0.504905 0.036587 -0.135131 -0.428172 -0.545407 0.720555 
-0.451013 0.070374 -0.258128 0.828487 -0.242129 -0.504958 
-0.424561 0.061284 -0.240288 0.683461 -0.438747 -0.583422 
-0.521564 0.030170 -0.170800 -0.493562 -0.612466 0.617480 
-0.489494 0.082589 -0.266737 0.243707 -0.797028 -0.552587 
-0.449051 0.026483 -0.220856 0.474786 -0.784786 -0.398359 
-0.459711 0.071263 -0.264335 0.353160 0.301284 -0.885723 
-0.453079 0.140500 -0.121388 0.609810 0.475956 0.633717 
-0.429191 0.153648 -0.186243 0.498904 0.389237 0.774332 
-0.486290 0.035479 -0.134930 -0.288045 -0.462180 0.838701 
-0.507217 0.176684 -0.164160 0.466353 0.882054 0.067044 
-0.546674 0.092394 -0.234961 -0.759399 -0.509288 -0.404893 
-0.427532 0.160123 -0.194643 0.887255 0.285401 -0.362387 
-0.437723 0.115533 -0.124588 0.430029 0.677566 0.596640 
-0.516861 0.115784 -0.258805 0.233741 0.040408 -0.971459 
-0.511841 0.045017 -0.238459 -0.664594 -0.087534 -0.742060 
-0.522681 0.053401 -0.237984 -0.082876 -0.730375 -0.678000 
-0.426496 0.108898 -0.148688 0.611225 0.483276 0.626776 
-0.418508 0.056408 -0.220172 0.763670 -0.633203 -0.125946 
-0.452498 0.178383 -0.197950 -0.045709 0.945922 -0.321158 
-0.480775 0.056692 -0.265715 -0.101943 -0.378503 -0.919969 
-0.456579 0.157355 -0.236431 0.464097 0.113456 -0.878489 
-0.542568 0.150701 -0.156566 -0.653912 0.729007 -0.202357 
-0.489663 0.164389 -0.133989 -0.119961 0.936480 0.329569 
-0.520650 0.062372 -0.261685 -0.788245 -0.293983 -0.540596 
-0.533098 0.128315 -0.244437 -0.163406 0.040504 -0.985727 
-0.454150 0.133563 -0.117721 0.660917 0.141535 0.736992 
-0.454370 0.144083 -0.136704 0.281210 0.956448 0.078286 
-0.466720 0.025423 -0.199498 0.388132 -0.812569 0.434839 
-0.571791 0.103577 -0.214017 -0.975752 0.147427 -0.161783 
-0.544950 0.145325 -0.210167 -0.262177 0.864011 -0.429823 
-0.417088 0.131743 -0.155911 0.954276 0.274882 0.117461 
-0.474975 0.174478 -0.237660 0.102606 0.793936 -0.599281 
-0.554963 0.142804 -0.225703 -0.761216 0.631350 -0.148147 
-0.463248 0.081968 -0.258781 0.406332 0.102182 -0.907994 
-0.443581 0.156252 -0.155423 0.066837 0.993862 -0.088149 
-0.519797 0.079867 -0.265130 -0.105078 0.060531 -0.992620 
-0.572510 0.101685 -0.204657 -0.981840 0.175931 0.070976 
-0.431060 0.116159 -0.236727 0.936306 0.082851 -0.341273 
-0.463230 0.141478 -0.116250 0.174785 0.555734 0.812779 
-0.567853 0.075950 -0.177799 -0.790492 -0.478730 0.382021 
-0.539388 0.149362 -0.160356 -0.639847 0.641026 -0.423889 
-0.460554 0.148529 -0.129599 0.583269 0.807145 0.091183 
-0.546278 0.093922 -0.245222 -0.762139 -0.637081 -0.115205 
-0.431662 0.103458 -0.122902 0.697530 0.085135 0.711480 
-0.424080 0.075281 -0.242868 0.732698 0.049110 -0.678780 
-0.430102 0.044242 -0.195119 0.095086 -0.990060 0.103636 
-0.522895 0.138590 -0.125430 -0.815404 0.064430 0.575296 
-0.448455 0.056564 -0.142425 0.315225 -0.922405 0.223163 
-0.508935 0.035216 -0.140253 -0.597732 -0.358742 0.716952 
-0.514459 0.119907 -0.258747 0.116997 -0.155952 -0.980811 
-0.435234 0.091363 -0.260893 0.550926 -0.326614 -0.767987 
-0.502353 0.028849 -0.171082 -0.440546 -0.851532 -0.284277 
-0.443785 0.040459 -0.195955 0.472132 -0.746758 0.468449 
-0.433074 0.164281 -0.181580 0.901052 0.232906 0.365869 
-0.457840 0.028667 -0.197258 -0.055151 -0.893079 0.446507 
-0.471609 0.065111 -0.268397 0.065015 -0.090160 -0.993803 
-0.420082 0.141082 -0.228995 0.934315 0.301307 -0.190447 
-0.433397 0.120109 -0.128900 0.469990 0.577007 0.667961 
-0.431850 0.036995 -0.174628 0.756310 -0.595643 0.270563 
-0.446942 0.131124 -0.135557 0.734215 -0.063128 0.675976 
-0.547289 0.077035 -0.232524 -0.771647 0.306185 -0.557505 
-0.449071 0.122224 -0.254752 0.757238 0.634244 -0.155967 
-0.405727 0.098215 -0.224373 0.852158 -0.045150 -0.521334 
-0.452412 0.132390 -0.263018 0.890417 0.144051 -0.431749 
-0.425593 0.090802 -0.231980 0.590877 -0.420775 -0.688341 
-0.413724 0.145949 -0.184215 0.699182 0.671294 0.245986 
-0.544492 0.043412 -0.162118 -0.708847 -0.699744 -0.088850 
-0.521231 0.040700 -0.237334 -0.131719 -0.207850 -0.969252 
-0.549740 0.047589 -0.195096 -0.473156 -0.681360 -0.558455 
-0.411783 0.072930 -0.176801 0.750382 -0.308221 0.584745 
-0.499750 0.166235 -0.228360 -0.210124 0.541749 -0.813852 
-0.446775 0.028728 -0.195062 0.839640 -0.536478 0.084828 
-0.555463 0.061648 -0.166014 -0.985671 0.091551 0.141676 
-0.508186 0.099852 -0.107946 -0.412523 -0.339769 0.845211 
-0.456763 0.021224 -0.212866 0.153499 -0.981779 -0.112017 
-0.471771 0.116002 -0.115108 0.620143 -0.086407 0.779716 
-0.552300 0.055014 -0.200240 -0.170072 -0.907238 -0.384701 
-0.436975 0.107028 -0.263154 0.500856 0.147344 -0.852897 
-0.555258 0.138014 -0.166966 -0.983586 -0.180117 -0.010828 
-0.431773 0.147320 -0.174997 0.736383 0.676234 0.021138 
-0.543395 0.110252 -0.139663 -0.959424 0.278814 -0.042049 
-0.568960 0.101147 -0.159150 -0.886348 0.014031 0.462806 
-0.489562 0.100883 -0.102937 -0.117254 -0.041115 0.992251 
-0.524374 0.158739 -0.229721 -0.451351 0.215944 -0.865824 
-0.417332 0.136552 -0.172777 0.827818 -0.226535 0.513225 
-0.434293 0.054260 -0.239345 0.158422 -0.802633 -0.575051 
-0.441769 0.117479 -0.128578 0.269260 0.826508 0.494352 
-0.455450 0.122843 -0.265767 0.275721 -0.282523 -0.918781 
-0.541622 0.074224 -0.133167 -0.321700 -0.397750 0.859246 
-0.460855 0.047418 -0.255332 0.360930 -0.723721 -0.588182 
-0.491393 0.014958 -0.176187 -0.283518 -0.927119 0.245086 
-0.471674 0.075897 -0.111758 0.516348 0.079938 0.852640 
-0.469773 0.044155 -0.132680 0.127984 -0.920346 0.369572 
-0.497727 0.100131 -0.104688 -0.322257 -0.063866 0.944495 
-0.450756 0.158953 -0.154448 0.609513 0.771746 -0.181390 
-0.451749 0.144993 -0.251449 0.480219 0.814649 -0.325171 
-0.478225 0.133009 -0.264269 -0.637485 -0.130407 -0.759347 
-0.434967 0.154646 -0.178810 0.989683 0.100020 0.102583 
-0.408586 0.115904 -0.167508 0.545116 0.809116 0.219499 
-0.536549 0.079452 -0.132789 -0.211864 -0.696284 0.685786 
-0.490461 0.186845 -0.200087 -0.046801 0.862094 -0.504583 
-0.549255 0.142627 -0.237868 -0.545967 0.662041 -0.513441 
-0.416244 0.079514 -0.159935 0.778506 -0.626448 0.038604 
-0.519906 0.024825 -0.213204 -0.413096 -0.863890 -0.288178 
-0.467650 0.172226 -0.199748 0.039095 0.921166 -0.387202 
-0.533395 0.053441 -0.137182 0.215167 -0.614905 0.758680 
-0.548969 0.151240 -0.204522 -0.108068 0.579028 -0.808114 
-0.424854 0.066947 -0.243364 0.568079 -0.275654 -0.775436 
-0.524089 0.160312 -0.151908 -0.670796 0.058113 0.739361 
-0.453125 0.163620 -0.151924 0.585500 0.787343 -0.193082 
-0.414928 0.073052 -0.228937 0.921245 -0.312333 -0.231854 
-0.500118 0.145977 -0.117593 -0.001421 0.481352 0.876526 
-0.452193 0.030506 -0.229330 0.429295 -0.651044 -0.625977 
-0.479852 0.183511 -0.214466 0.019246 0.937232 -0.348175 
-0.500393 0.111688 -0.268880 -0.749312 0.282588 -0.598896 
-0.461509 0.059250 -0.117826 0.348141 -0.349650 0.869794 
-0.408696 0.136233 -0.200806 0.838943 0.280801 -0.466181 
-0.464408 0.177116 -0.218467 0.195925 0.965439 0.171876 
-0.459823 0.144826 -0.120434 0.351214 0.738132 0.576030 
-0.416223 0.073525 -0.148743 0.887694 0.093600 0.450819 
-0.554789 0.110956 -0.228560 -0.291901 -0.044680 -0.955404 
-0.432673 0.053973 -0.171416 0.574031 -0.747223 0.334882 
-0.486508 0.189093 -0.193012 -0.049501 0.996728 -0.063905 
-0.465917 0.107594 -0.119413 0.408136 0.649798 0.641239 
-0.432043 0.121767 -0.252438 0.360808 0.524184 -0.771394 
-0.428383 0.053950 -0.158227 0.356823 -0.910968 -0.206919 
-0.441199 0.147080 -0.245982 0.005838 0.652587 -0.757692 
-0.550155 0.104197 -0.137929 -0.956840 0.246720 0.153583 
-0.527028 0.022276 -0.189953 -0.354685 -0.933713 0.048763 
-0.509022 0.023222 -0.160232 -0.264827 -0.963261 0.044658 
-0.522195 0.066667 -0.259955 -0.905617 -0.085129 -0.415464 
-0.407593 0.088317 -0.157511 0.700301 -0.407364 0.586202 
-0.424922 0.146399 -0.234088 0.718874 0.505141 -0.477549 
-0.476303 0.183525 -0.183660 0.611122 0.703127 0.363513 
-0.518561 0.155349 -0.244386 -0.876140 0.454196 -0.161507 
-0.423591 0.053849 -0.207110 0.217391 -0.707494 -0.672453 
-0.455440 0.047676 -0.137663 0.880247 -0.430230 0.200168 
-0.461519 0.064408 -0.265644 0.320142 -0.094313 -0.942663 
-0.497341 0.138037 -0.116580 0.367854 0.184420 0.911412 
-0.428406 0.145015 -0.172794 0.372156 0.844063 -0.386080 
-0.473415 0.114525 -0.271465 0.713170 0.159343 -0.682641 
-0.501949 0.055499 -0.263509 0.054656 -0.703634 -0.708458 
-0.520611 0.121821 -0.262722 0.032034 -0.115467 -0.992795 
-0.467976 0.071612 -0.114220 0.228483 0.354515 0.906705 
-0.444903 0.078376 -0.248273 0.457056 -0.484458 -0.745923 
-0.432830 0.096403 -0.260610 0.649045 -0.143620 -0.747070 
-0.412924 0.108600 -0.189897 0.811555 0.583893 -0.021154 
-0.483057 0.050579 -0.131705 -0.688396 -0.407416 0.600103 
-0.407372 0.079144 -0.173482 0.691341 -0.638580 0.338029 
-0.561189 0.085748 -0.197220 -0.901056 0.159891 0.403154 
-0.555870 0.055483 -0.210491 -0.695338 -0.704508 -0.142032 
-0.564436 0.057911 -0.188970 -0.841895 -0.524229 0.128053 
-0.500959 0.099032 -0.276526 -0.510993 -0.139826 -0.848136 
-0.500346 0.054154 -0.258947 0.256492 -0.861537 -0.438138 
-0.415360 0.086472 -0.191256 0.986370 -0.164499 0.003706 
-0.462374 0.054132 -0.120061 0.292626 -0.569053 0.768472 
-0.539020 0.134997 -0.136319 -0.171977 0.067338 0.982797 
-0.511211 0.161699 -0.233122 0.308399 0.641267 -0.702615 
-0.541165 0.073984 -0.248782 -0.120909 -0.234578 -0.964549 
-0.480912 0.118713 -0.111640 -0.290931 0.736173 0.611072 
-0.542098 0.040484 -0.197328 -0.819529 -0.200276 -0.536901 
-0.455284 0.051842 -0.255774 0.551935 -0.629919 -0.546416 
-0.510139 0.046900 -0.128700 -0.408261 -0.753801 0.514885 
-0.564776 0.077808 -0.188887 -0.916774 0.352734 -0.187361 
-0.537707 0.153789 -0.172428 -0.733923 0.166986 0.658386 
-0.539625 0.164177 -0.178662 -0.535847 0.827971 -0.165324 
-0.491884 0.027121 -0.144806 0.227296 -0.739491 0.633632 
-0.560182 0.074855 -0.227448 -0.817406 -0.474013 -0.327351 
-0.407090 0.113420 -0.221676 0.848841 0.441013 -0.291508 
-0.480323 0.039688 -0.235014 0.590455 -0.609997 -0.528457 
-0.474422 0.166236 -0.137152 0.045670 0.467154 0.882996 
-0.479979 0.163481 -0.245389 -0.081792 0.323660 -0.942632 
-0.447087 0.145477 -0.250433 0.285763 0.764272 -0.578124 
-0.488029 0.026182 -0.147553 0.447403 -0.761270 0.469359 
-0.413232 0.084430 -0.198935 0.831984 -0.041844 0.553219 
-0.420905 0.131625 -0.210466 0.848959 -0.053759 -0.525718 
-0.531745 0.155974 -0.229019 -0.306569 0.371481 -0.876366 
-0.451141 0.144553 -0.126046 0.572489 0.619297 0.537334 
-0.560781 0.082948 -0.217696 -0.603978 -0.796016 -0.039610 
-0.420143 0.045486 -0.197023 0.525747 -0.840782 -0.129133 
-0.504957 0.155799 -0.144000 0.310299 0.921212 0.234699 
-0.545763 0.106652 -0.141481 -0.907042 0.419961 -0.030121 
-0.517642 0.106041 -0.264562 0.100862 0.536282 -0.837991 
-0.489312 0.176473 -0.175143 -0.438528 0.555612 0.706391 
-0.434736 0.116395 -0.256437 0.465007 0.491330 -0.736453 
-0.450673 0.127925 -0.263294 0.895087 0.242165 -0.374401 
-0.492935 0.137096 -0.262988 0.310063 -0.075771 -0.947692 
-0.532901 0.053802 -0.245872 -0.160773 -0.782445 -0.601608 
-0.564447 0.121824 -0.200382 -0.929273 -0.210848 0.303307 
-0.477077 0.178931 -0.206952 0.711348 0.558627 -0.426522 
-0.431673 0.067833 -0.136222 0.192649 -0.002853 0.981264 
-0.444178 0.113833 -0.116813 0.370776 0.303194 0.877837 
-0.495175 0.187311 -0.197857 -0.264118 0.946954 -0.183083 
-0.496466 0.163663 -0.151801 -0.423717 0.544524 0.723849 
-0.504691 0.029380 -0.180354 -0.118247 -0.915164 0.385347 
-0.404509 0.125001 -0.182096 0.992328 0.123541 0.004827 
-0.514813 0.144730 -0.120300 -0.397994 0.417051 0.817110 
-0.433185 0.050841 -0.235416 0.205697 -0.793497 -0.572758 
-0.480971 0.179255 -0.225190 -0.332604 0.936638 -0.109927 
-0.540087 0.142272 -0.136246 -0.376860 0.616443 0.691357 
-0.559293 0.106523 -0.151801 -0.391297 0.457249 0.798630 
-0.468271 0.017834 -0.206721 -0.080636 -0.968989 -0.233579 
-0.466601 0.153670 -0.256598 0.354214 0.770049 -0.530619 
-0.466242 0.023590 -0.224244 -0.160692 -0.960077 -0.228977 
-0.564623 0.086939 -0.201388 -0.844968 -0.067087 0.530593 
-0.415954 0.075768 -0.233203 0.822301 0.018147 -0.568764 
-0.466841 0.174204 -0.147770 0.374865 0.772967 0.511858 
-0.421313 0.116486 -0.227846 0.269238 -0.059759 -0.961218 
-0.473766 0.038697 -0.152483 0.191513 -0.521229 0.831651 
-0.543816 0.091657 -0.141281 -0.853064 -0.506599 0.125055 
-0.434698 0.162208 -0.166827 0.701614 0.712409 0.014510 
-0.544718 0.054161 -0.213103 -0.566348 -0.738283 0.366317 
-0.467405 0.027133 -0.154646 0.015684 -0.850424 0.525864 
-0.556424 0.144255 -0.218651 -0.841170 0.523038 -0.137348 
-0.454511 0.029533 -0.153517 0.289721 -0.734867 0.613215 
-0.474005 0.088190 -0.112293 0.696231 -0.347414 0.628145 
-0.453543 0.091903 -0.262473 -0.324652 -0.326979 -0.887517 
-0.475731 0.091530 -0.274959 0.565433 -0.300826 -0.767977 
-0.545862 0.147792 -0.146806 -0.422224 0.778684 0.464088 
-0.442269 0.131227 -0.244250 0.218877 0.046501 -0.974644 
-0.512024 0.156897 -0.131372 -0.118682 0.905217 0.408040 
-0.466106 0.123325 -0.267190 0.319123 -0.347967 -0.881521 
-0.569542 0.094526 -0.220541 -0.880959 -0.225403 -0.416058 
-0.425277 0.144607 -0.179460 0.138762 0.949019 0.283033 
-0.506052 0.089049 -0.262091 -0.644427 -0.035593 -0.763837 
-0.410260 0.065964 -0.179561 0.911945 -0.247182 0.327501 
-0.474463 0.016155 -0.189510 0.600387 -0.791108 0.116977 
-0.500679 0.037005 -0.246575 0.063250 -0.416438 -0.906962 
-0.542579 0.045097 -0.196805 -0.776394 -0.232990 -0.585600 
-0.514164 0.028338 -0.156868 -0.710083 -0.645294 0.281740 
-0.461765 0.024603 -0.224525 -0.014295 -0.881890 -0.471238 
-0.417557 0.120507 -0.165136 0.643591 0.729981 -0.230040 
-0.433026 0.078206 -0.132934 0.119593 -0.682474 0.721059 
-0.439456 0.167458 -0.174144 0.371042 0.689464 0.622067 
-0.420904 0.143210 -0.152997 0.859937 0.367864 0.353814 
-0.414808 0.087606 -0.228589 0.544904 -0.166684 -0.821764 
-0.522873 0.130960 -0.123690 -0.948658 -0.026201 0.315218 
-0.535596 0.038192 -0.169776 -0.078492 -0.622970 0.778298 
-0.420733 0.065392 -0.166776 0.953705 0.167620 0.249701 
-0.560007 0.135106 -0.204649 -0.639615 0.055878 -0.766662 
-0.517231 0.153537 -0.130745 -0.699372 0.638128 0.321979 
-0.416393 0.099059 -0.239235 0.623589 -0.184811 -0.759593 
-0.408447 0.138649 -0.183385 0.833959 0.384580 0.395741 
-0.482743 0.067806 -0.121959 -0.317046 0.077299 0.945255 
-0.428638 0.124858 -0.139974 0.897708 -0.052278 0.437479 
-0.433492 0.042352 -0.173648 0.583363 -0.288946 0.759077 
-0.530756 0.089379 -0.116838 -0.292663 -0.333870 0.896035 
-0.507418 0.114996 -0.122470 -0.480234 0.259182 0.837974 
-0.525651 0.056186 -0.245454 -0.203410 -0.770285 -0.604389 
-0.564530 0.086635 -0.225795 -0.776511 -0.368458 -0.511145 
-0.542595 0.087761 -0.126000 -0.736619 -0.295939 0.608122 
-0.536674 0.075173 -0.135897 -0.074187 -0.185878 0.979768 
-0.431174 0.111821 -0.240033 0.949756 0.259101 -0.175588 
-0.433878 0.157634 -0.182713 0.901837 0.076319 0.425282 
-0.513065 0.177487 -0.221890 0.102656 0.870679 -0.481019 
-0.425500 0.053588 -0.154471 0.617229 -0.775182 -0.134614 
-0.569450 0.075534 -0.200541 -0.992435 -0.053988 -0.110268 
-0.561428 0.144586 -0.202133 -0.760547 0.466890 -0.451200 
-0.500102 0.117480 -0.270140 -0.676306 0.073398 -0.732955 
-0.521289 0.035953 -0.146027 -0.377657 -0.467470 0.799279 
-0.433384 0.149885 -0.208671 0.877345 0.470722 0.093199 
-0.421065 0.070836 -0.239027 0.767557 -0.020535 -0.640651 
-0.506708 0.102466 -0.274371 -0.483135 -0.095468 -0.870325 
-0.453386 0.034291 -0.234849 0.389576 -0.509193 -0.767433 
-0.463197 0.043624 -0.249813 0.120285 -0.945201 -0.303523 
-0.443251 0.032627 -0.157820 0.740375 -0.590007 0.322080 
-0.548062 0.122869 -0.141723 -0.812579 -0.374445 0.446661 
-0.521138 0.135941 -0.121386 -0.865079 0.141925 0.481139 
-0.459288 0.138936 -0.116387 0.351715 0.406739 0.843125 
-0.470724 0.150533 -0.256381 -0.489343 0.775248 -0.399418 
-0.461436 0.175043 -0.212898 -0.271551 0.949381 0.157910 
-0.482989 0.183071 -0.170527 -0.286871 0.937995 0.194603 
-0.422294 0.131475 -0.219099 0.979235 0.042527 0.198219 
-0.526025 0.039473 -0.171327 -0.205057 -0.604349 0.769879 
-0.554660 0.063788 -0.231394 -0.940663 -0.178304 -0.288723 
-0.426131 0.157421 -0.187686 0.466331 0.548206 0.694266 
-0.570318 0.088720 -0.176096 -0.878610 -0.409868 -0.245057 
-0.435183 0.155694 -0.232283 0.370235 0.879469 -0.299100 
-0.557874 0.089550 -0.228087 -0.303169 -0.408937 -0.860732 
-0.483423 0.175768 -0.234503 -0.228611 0.830267 -0.508324 
-0.488834 0.089109 -0.105322 -0.054485 -0.461841 0.885288 
-0.522492 0.036348 -0.235765 -0.089193 -0.604528 -0.791575 
-0.433725 0.165674 -0.208620 0.621881 0.633694 -0.460105 
-0.533002 0.084877 -0.258721 -0.398308 -0.647749 -0.649439 
-0.418524 0.136501 -0.153095 0.987650 -0.023573 0.154891 
-0.468320 0.050006 -0.260635 0.125587 -0.644166 -0.754505 
-0.429800 0.142203 -0.242232 0.511412 0.366910 -0.777068 
-0.553358 0.124065 -0.147379 -0.625610 -0.482910 0.612708 
-0.541495 0.133769 -0.245952 -0.192312 0.219850 -0.956390 
-0.569772 0.087336 -0.205243 -0.952515 -0.056063 0.299287 
-0.488048 0.157369 -0.134278 0.392203 0.148042 0.907888 
-0.442347 0.082946 -0.259228 0.468470 -0.605344 -0.643502 
-0.548828 0.050257 -0.160642 -0.730497 -0.630597 -0.262147 
-0.543012 0.149922 -0.206664 -0.564696 0.330902 -0.756058 
-0.525392 0.046964 -0.236823 0.066145 -0.290294 -0.954649 
-0.428616 0.056172 -0.162609 0.312458 -0.941569 -0.125770 
-0.513052 0.025035 -0.185761 0.187398 -0.742250 0.643387 
-0.504805 0.064904 -0.269153 0.040855 -0.355867 -0.933643 
-0.526798 0.059771 -0.126773 -0.698946 -0.251752 0.669399 
-0.417686 0.062038 -0.221626 0.964529 -0.234760 -0.120715 
-0.543642 0.081388 -0.129453 -0.691330 -0.399569 0.602003 
-0.554918 0.141556 -0.154506 -0.865538 0.442824 0.233990 
-0.538902 0.045317 -0.178493 -0.985034 -0.123113 0.120631 
-0.419110 0.144250 -0.159111 0.970792 0.209118 -0.117613 
-0.452613 0.173244 -0.169970 0.269628 0.761749 0.589100 
-0.495434 0.132165 -0.119234 0.617075 0.038701 0.785952 
-0.449710 0.082592 -0.263982 0.109495 -0.266365 -0.957633 
-0.556420 0.142017 -0.160004 -0.967151 0.185466 -0.173842 
-0.486217 0.041683 -0.248480 -0.404791 -0.535477 -0.741221 
-0.495731 0.060365 -0.267092 0.206938 -0.288364 -0.934892 
-0.486982 0.060996 -0.117380 0.109003 -0.241197 0.964335 
-0.470736 0.105955 -0.271071 0.687010 0.383776 -0.617036 
-0.414226 0.072853 -0.205721 0.620629 -0.122745 -0.774438 
-0.564501 0.070087 -0.179114 -0.635360 -0.148645 0.757775 
-0.553452 0.050425 -0.195940 -0.437642 -0.739680 -0.511218 
-0.420349 0.065288 -0.217746 0.990210 0.104873 0.092121 
-0.480952 0.145008 -0.130916 -0.169030 0.868343 0.466273 
-0.444079 0.140579 -0.252013 0.588867 0.116765 -0.799751 
-0.520561 0.056957 -0.137085 -0.472659 -0.799707 0.370221 
-0.474457 0.049819 -0.260152 -0.303151 -0.681474 -0.666102 
-0.478045 0.145029 -0.259331 -0.284281 0.914329 -0.288421 
-0.415829 0.121672 -0.173697 0.514064 0.624874 0.587597 
-0.478516 0.023501 -0.154601 0.351552 -0.823523 0.445220 
-0.467331 0.065126 -0.114454 0.196093 -0.030740 0.980103 
-0.518229 0.033320 -0.167379 -0.643661 -0.410866 0.645670 
-0.479312 0.039786 -0.131186 -0.127819 -0.661865 0.738645 
-0.426731 0.133598 -0.243500 0.760150 -0.007816 -0.649701 
-0.404940 0.089297 -0.216748 0.898994 -0.342668 -0.272742 
-0.468685 0.045406 -0.243467 -0.004355 -0.995124 -0.098532 
-0.473691 0.045672 -0.125346 0.003207 -0.714884 0.699236 
-0.520768 0.156359 -0.149000 -0.788238 0.181048 0.588135 
-0.561414 0.092983 -0.192594 -0.866990 -0.490609 0.087360 
-0.439216 0.153251 -0.143497 0.067854 0.629556 0.773987 
-0.401424 0.099064 -0.203911 0.969892 -0.187457 0.155467 
-0.434977 0.112185 -0.122990 0.553171 0.463070 0.692509 
-0.556059 0.137645 -0.157065 -0.975246 0.219278 0.028494 
-0.503268 0.112605 -0.263293 -0.636533 0.400183 -0.659301 
-0.402625 0.098338 -0.217200 0.969531 -0.036179 -0.242284 
-0.427545 0.094312 -0.143874 0.671329 -0.685840 0.280964 
-0.408135 0.139288 -0.197210 0.927468 0.271769 -0.256795 
-0.486145 0.023481 -0.227182 0.179039 -0.975750 -0.125921 
-0.515946 0.057360 -0.262047 -0.492462 -0.595701 -0.634525 
-0.448153 0.145062 -0.133749 0.007694 0.984010 0.177950 
-0.435643 0.046657 -0.173041 0.736023 -0.112636 0.667520 
-0.411904 0.089570 -0.199494 0.752901 -0.441586 0.487997 
-0.547447 0.159758 -0.203867 -0.529187 0.775028 -0.345388 
-0.518900 0.146615 -0.123958 -0.518310 0.543793 0.660033 
-0.501974 0.157527 -0.250464 -0.166099 0.961436 -0.219207 
-0.525023 0.126390 -0.249702 -0.788857 0.255727 -0.558846 
-0.527343 0.080376 -0.121967 -0.749753 -0.608361 0.260321 
-0.495920 0.158904 -0.244694 -0.266437 0.956942 -0.115210 
-0.492465 0.188239 -0.186873 -0.169280 0.975585 0.139921 
-0.504114 0.080670 -0.268276 -0.566652 0.319825 -0.759353 
-0.428911 0.086438 -0.253909 0.863986 0.012783 -0.503353 
-0.544564 0.049036 -0.149494 -0.578271 -0.693296 0.430050 
-0.401673 0.098210 -0.178397 0.983643 -0.147043 -0.104043 
-0.450546 0.066630 -0.251680 0.698740 0.337090 -0.630977 
-0.539196 0.146740 -0.143246 -0.074994 0.838161 0.540242 
-0.566052 0.083468 -0.211258 -0.545802 -0.723191 -0.423196 
-0.564795 0.070921 -0.203365 -0.573573 -0.150286 -0.805250 
-0.412857 0.052446 -0.190106 0.845758 -0.533431 0.012013 
-0.442470 0.122476 -0.247464 0.130116 0.602360 -0.787548 
-0.483290 0.054081 -0.260742 -0.347674 -0.777360 -0.524247 
-0.481726 0.084297 -0.107266 0.085086 -0.532773 0.841970 
-0.525910 0.101233 -0.268532 -0.152617 0.223585 -0.962662 
-0.428608 0.106813 -0.253794 0.841219 0.208681 -0.498802 
-0.536084 0.044191 -0.148126 -0.434455 -0.800514 0.412827 
-0.428556 0.107496 -0.241460 0.849265 0.527618 0.019214 
-0.438598 0.039332 -0.165006 0.935686 -0.254091 0.244806 
-0.499187 0.156414 -0.238550 -0.369034 0.916645 -0.153545 
-0.512093 0.095587 -0.264192 -0.000854 -0.506757 -0.862089 
-0.487636 0.019313 -0.174480 0.173691 -0.723794 0.667797 
-0.421004 0.047334 -0.202078 0.438575 -0.724174 -0.532187 
-0.553526 0.064967 -0.169068 -0.919101 0.246980 0.307008 
-0.518761 0.028220 -0.166760 -0.332448 -0.870581 0.362722 
-0.496687 0.049208 -0.245754 0.208458 -0.383983 -0.899501 
-0.516500 0.178937 -0.205964 0.015689 0.892929 0.449924 
-0.555081 0.121342 -0.168417 -0.668921 0.724001 0.168426 
-0.543337 0.078883 -0.240210 -0.935151 0.066905 -0.347873 
-0.550912 0.148537 -0.176553 -0.276958 0.716940 0.639759 
-0.512093 0.151892 -0.257616 -0.318263 0.672290 -0.668382 
-0.510382 0.017641 -0.192808 -0.048459 -0.998293 -0.032613 
-0.551844 0.126270 -0.238587 -0.783279 -0.209588 -0.585275 
-0.534137 0.166306 -0.221073 -0.732800 0.602832 -0.315592 
-0.480693 0.115068 -0.276055 0.083237 0.478295 -0.874246 
-0.501468 0.135762 -0.268201 0.147957 0.220578 -0.964082 
-0.480657 0.121032 -0.116522 -0.282008 0.505398 0.815503 
-0.545379 0.146045 -0.222574 -0.500878 0.823905 0.265144 
-0.510406 0.176710 -0.157784 0.006819 0.882241 0.470748 
-0.547511 0.082278 -0.230388 -0.601054 0.140795 -0.786709 
-0.474919 0.140204 -0.114826 -0.298639 0.348020 0.888649 
-0.402325 0.106946 -0.209579 0.988533 0.146058 -0.038348 
-0.442801 0.029194 -0.165754 0.648386 -0.721254 0.243697 
-0.529291 0.107446 -0.265801 -0.223692 0.327237 -0.918084 
-0.433306 0.050614 -0.208178 0.530892 -0.505495 -0.680168 
-0.564517 0.100704 -0.230118 -0.655864 0.082921 -0.750311 
-0.524553 0.127423 -0.259753 -0.741462 0.362196 -0.564844 
-0.521379 0.065680 -0.120605 -0.801259 -0.014330 0.598147 
-0.515031 0.171362 -0.186148 0.193810 0.927506 -0.319640 
-0.452585 0.119248 -0.264952 -0.109623 0.023320 -0.993700 
-0.465286 0.149989 -0.259691 0.191515 0.937817 -0.289518 
-0.536430 0.152790 -0.232017 -0.062688 0.716313 -0.694958 
-0.409410 0.142724 -0.187922 0.820421 0.554647 0.138841 
-0.544716 0.081408 -0.134465 -0.978655 -0.166784 0.120074 
-0.459792 0.172677 -0.201109 -0.313071 0.875884 -0.367171 
-0.478519 0.077712 -0.110788 0.037837 -0.229398 0.972597 
-0.546754 0.119753 -0.146912 -0.792260 -0.393465 0.466380 
-0.459337 0.084337 -0.258430 -0.154151 0.029623 -0.987603 
-0.485220 0.187681 -0.200040 0.117845 0.921620 -0.369769 
-0.430359 0.090318 -0.239929 0.985643 -0.137547 -0.097918 
-0.522628 0.162381 -0.233169 -0.595977 0.331145 -0.731543 
-0.480904 0.046445 -0.253112 -0.432082 -0.479179 -0.763998 
-0.454742 0.176965 -0.176386 0.078902 0.979237 0.186733 
-0.494627 0.177669 -0.205036 -0.040071 0.608261 -0.792725 
-0.500359 0.155650 -0.140432 -0.242117 0.966346 0.086923 
-0.498876 0.157084 -0.255282 0.093106 0.820749 -0.563651 
-0.458546 0.146255 -0.258824 0.582389 0.745717 -0.323619 
-0.426740 0.113766 -0.151363 0.692714 0.188257 0.696208 
-0.426854 0.074371 -0.134307 0.775244 -0.046748 0.629930 
-0.553050 0.076809 -0.151871 -0.548773 0.248179 0.798283 
-0.499619 0.067474 -0.114063 0.270440 -0.229409 0.935005 
-0.566503 0.076163 -0.193414 -0.938724 0.329768 0.100252 
-0.555772 0.135098 -0.225202 -0.989043 0.142793 0.037464 
-0.427584 0.126835 -0.246081 0.743029 0.309735 -0.593273 
-0.453467 0.051277 -0.131795 0.696785 -0.620449 0.359908 
-0.415102 0.121907 -0.207968 0.826801 0.413692 -0.381128 
-0.413814 0.148044 -0.188753 0.682103 0.718684 0.135014 
-0.504605 0.175610 -0.154854 -0.046727 0.609047 0.791757 
-0.456161 0.139838 -0.263549 0.464474 0.429023 -0.774728 
-0.484710 0.161704 -0.135328 -0.324098 0.259864 0.909633 
-0.561952 0.121974 -0.228512 -0.931552 0.352138 -0.090609 
-0.518322 0.024818 -0.177376 0.205115 -0.962285 0.178703 
-0.539010 0.155737 -0.194386 -0.060036 0.965463 0.253529 
-0.474472 0.107488 -0.107649 0.604521 0.168468 0.778571 
-0.520061 0.157400 -0.235508 -0.857751 0.118131 -0.500308 
-0.413122 0.082762 -0.213156 0.532345 -0.805283 -0.261015 
-0.437917 0.121695 -0.133356 0.202237 0.667911 0.716237 
-0.473919 0.147429 -0.253937 -0.498148 0.742595 -0.447662 
-0.422855 0.055424 -0.227470 0.672628 -0.734117 -0.092969 
-0.469404 0.173730 -0.237004 0.287887 0.804961 -0.518805 
-0.409993 0.107860 -0.183331 0.768182 0.507071 -0.390866 
-0.516696 0.169801 -0.151565 -0.030099 0.623130 0.781539 
-0.477470 0.179878 -0.156409 0.094447 0.977135 0.190490 
-0.440892 0.056002 -0.238149 -0.131740 -0.901515 -0.412207 
-0.465491 0.042934 -0.147001 -0.397255 -0.838849 0.372183 
-0.472764 0.177280 -0.150082 0.190214 0.864889 0.464528 
-0.448483 0.023958 -0.206152 0.554394 -0.822460 0.127309 
-0.426043 0.078155 -0.247600 0.808743 -0.291355 -0.510927 
-0.485164 0.167012 -0.245880 -0.021626 0.618699 -0.785331 
-0.405868 0.128470 -0.201876 0.866959 0.211044 -0.451489 
-0.407431 0.114638 -0.217027 0.818427 0.535678 -0.207908 
-0.409040 0.070176 -0.203955 0.858190 -0.062344 -0.509532 
-0.412659 0.109724 -0.196189 0.849413 0.356333 0.389261 
-0.553993 0.055398 -0.158371 -0.864793 -0.501891 0.015418 
-0.568679 0.089635 -0.164151 -0.861500 -0.412318 0.296331 
-0.532007 0.058245 -0.131254 -0.525093 -0.277736 0.804450 
-0.484307 0.144099 -0.127854 0.179474 0.871356 0.456648 
-0.562253 0.146720 -0.190375 -0.842993 0.535247 0.053603 
-0.443378 0.027914 -0.210330 0.657365 -0.753382 0.016922 
-0.567502 0.095742 -0.224531 -0.797525 -0.204619 -0.567525 
-0.538300 0.050232 -0.142592 -0.406368 -0.645183 0.646996 
-0.483147 0.124360 -0.261668 -0.303225 0.400991 -0.864443 
-0.527244 0.175646 -0.207546 -0.433410 0.901181 0.005281 
-0.534365 0.044867 -0.224410 0.102697 -0.983660 -0.147875 
-0.555579 0.152317 -0.182129 -0.526688 0.731819 0.432483 
-0.454605 0.129976 -0.266659 0.594068 0.302482 -0.745378 
-0.487531 0.055160 -0.119059 -0.266104 -0.837075 0.478011 
-0.543348 0.114351 -0.243326 -0.957947 0.286478 0.016368 
-0.483508 0.043301 -0.131717 -0.414901 -0.348115 0.840639 
-0.441423 0.032902 -0.178189 0.710778 -0.499126 -0.495649 
-0.524239 0.155710 -0.152876 -0.482062 0.150494 0.863115 
-0.426733 0.147506 -0.183729 0.349543 0.727653 0.590205 
-0.558644 0.140336 -0.172628 -0.900032 -0.032305 0.434625 
-0.509078 0.136108 -0.266825 -0.344427 0.081139 -0.935300 
-0.559637 0.081012 -0.162498 -0.651781 -0.725644 -0.220506 
-0.431949 0.160984 -0.197524 0.848843 0.399605 -0.346095 
-0.429563 0.113004 -0.147637 0.901047 0.121060 0.416483 
-0.511679 0.068251 -0.113511 -0.269958 -0.219386 0.937546 
-0.556881 0.119535 -0.218760 -0.694937 0.710087 0.113308 
-0.441204 0.162036 -0.171093 0.257138 0.584606 0.769491 
-0.560114 0.123343 -0.174353 -0.549563 0.612282 0.568411 
-0.548827 0.122558 -0.236778 -0.713766 -0.498958 -0.491507 
-0.467848 0.123288 -0.113044 0.500518 -0.171530 0.848563 
-0.487824 0.099508 -0.279511 0.003332 -0.036537 -0.999327 
-0.538853 0.030865 -0.197822 -0.748698 -0.620749 -0.232641 
-0.521870 0.042901 -0.223928 -0.592156 -0.783739 0.187360 
-0.526682 0.023145 -0.184230 -0.353706 -0.908586 0.222178 
-0.511224 0.049128 -0.252445 -0.664326 -0.704783 -0.248901 
-0.468005 0.028385 -0.190834 0.629267 -0.756939 -0.176256 
-0.526359 0.023313 -0.199542 -0.281524 -0.914428 -0.290802 
-0.435165 0.065437 -0.246089 0.243370 -0.274355 -0.930323 
-0.515408 0.172059 -0.197547 0.160026 0.917862 0.363210 
-0.427081 0.052372 -0.232973 0.565280 -0.783001 -0.259555 
-0.453345 0.022696 -0.206416 0.115940 -0.963118 0.242819 
-0.448805 0.062708 -0.129426 0.697062 0.145603 0.702072 
-0.561753 0.079944 -0.227551 -0.751116 -0.265111 -0.604600 
-0.501810 0.072456 -0.271586 0.117121 -0.302524 -0.945919 
-0.553885 0.060559 -0.152730 -0.926477 -0.313575 0.208113 
-0.550676 0.059449 -0.146697 -0.788873 -0.339628 0.512183 
-0.525995 0.176742 -0.197596 -0.105326 0.991497 -0.076425 
-0.451378 0.129582 -0.128107 0.937336 0.103425 0.332724 
-0.438410 0.039212 -0.180794 0.559440 -0.614615 -0.556125 
-0.457066 0.115671 -0.260277 -0.111939 0.090771 -0.989561 
-0.418734 0.101104 -0.243107 0.695656 0.188846 -0.693109 
-0.483739 0.183897 -0.209569 -0.529734 0.749520 -0.396990 
-0.430121 0.165698 -0.193595 0.823341 0.546918 -0.151624 
-0.489923 0.152386 -0.133279 0.343611 0.287377 0.894061 
-0.485101 0.174458 -0.166304 -0.663521 0.744300 0.075880 
-0.551673 0.129017 -0.164786 -0.988868 0.148051 0.014833 
-0.422333 0.089477 -0.153007 0.460821 -0.292724 0.837829 
-0.545210 0.115006 -0.134208 -0.985559 0.055145 0.160102 
-0.411333 0.114006 -0.199607 0.829071 0.389160 0.401492 
-0.417771 0.103721 -0.237932 0.465404 0.574109 -0.673645 
-0.536874 0.084313 -0.126379 -0.487452 -0.586434 0.646904 
-0.487879 0.170112 -0.144685 -0.595396 0.583561 0.552233 
-0.531454 0.064946 -0.245797 -0.280752 0.119789 -0.952276 
-0.430572 0.091031 -0.257114 0.797434 -0.166881 -0.579870 
-0.478247 0.013610 -0.191238 0.416943 -0.908932 0.000803 
-0.520799 0.041714 -0.219072 -0.728441 -0.630801 -0.267329 
-0.556812 0.115083 -0.228783 -0.176862 -0.038878 -0.983467 
-0.570266 0.090239 -0.214673 -0.915397 -0.352689 -0.194059 
-0.513873 0.030312 -0.148534 -0.622294 -0.704369 0.341488 
-0.549019 0.047463 -0.187161 -0.384493 -0.707073 0.593475 
-0.472034 0.120421 -0.273118 0.551925 -0.126376 -0.824262 
-0.481837 0.028334 -0.172915 0.196650 -0.713652 0.672331 
-0.425557 0.056037 -0.171920 0.126978 -0.925130 0.357787 
-0.494098 0.159787 -0.237026 -0.632829 0.749934 -0.192682 
-0.554114 0.065000 -0.211961 -0.660645 0.213041 -0.719834 
-0.542266 0.154464 -0.153805 -0.746949 0.661281 0.069100 
-0.552478 0.130765 -0.239785 -0.768431 -0.049554 -0.638011 
-0.413253 0.118290 -0.170853 0.473756 0.707387 0.524555 
-0.464809 0.023187 -0.218493 -0.180720 -0.968918 -0.168930 
-0.451322 0.132578 -0.256464 0.927496 0.012332 -0.373630 
-0.572168 0.102324 -0.194407 -0.954743 0.293398 0.048829 
-0.564350 0.084079 -0.169446 -0.616516 -0.757377 0.215147 
-0.423996 0.084090 -0.151590 0.455811 0.261978 0.850649 
-0.445676 0.161966 -0.172086 0.230004 0.564960 0.792413 
-0.484554 0.048668 -0.248416 -0.645670 -0.358568 -0.674196 
-0.506825 0.156054 -0.137647 -0.013376 0.999574 -0.025930 
-0.483732 0.013445 -0.183455 0.315910 -0.852421 0.416629 
-0.556114 0.144606 -0.164029 -0.536075 0.829682 0.155730 
-0.485594 0.179212 -0.209735 -0.432263 0.649233 -0.625816 
-0.563550 0.066413 -0.203206 -0.811659 -0.070659 -0.579843 
-0.564019 0.079536 -0.174847 -0.664902 -0.453174 0.593750 
-0.544749 0.128993 -0.247490 -0.346677 0.130071 -0.928922 
-0.523155 0.073445 -0.252398 -0.895134 -0.203392 -0.396694 
-0.462583 0.170940 -0.236230 0.484511 0.693348 -0.533402 
-0.540786 0.051827 -0.177159 -0.849381 -0.511437 0.130321 
-0.504314 0.105614 -0.271599 -0.775484 0.347401 -0.527198 
-0.510359 0.049167 -0.256948 -0.605059 -0.710315 -0.359663 
-0.517016 0.168968 -0.232034 0.147771 0.706475 -0.692140 
-0.535035 0.157775 -0.163829 -0.968498 0.206019 -0.139889 
-0.451379 0.155675 -0.236354 0.207825 0.471454 -0.857053 
-0.491482 0.177465 -0.153353 -0.349769 0.852606 0.388234 
-0.497723 0.025187 -0.146498 -0.020804 -0.845447 0.533653 
-0.470051 0.118458 -0.266078 0.605948 -0.181985 -0.774408 
-0.508131 0.171179 -0.191457 -0.408690 0.912669 -0.002755 
-0.427795 0.094422 -0.239683 0.890110 -0.415418 -0.187436 
-0.411173 0.073507 -0.192822 0.929819 0.367806 0.012422 
-0.460476 0.094152 -0.262612 0.098933 -0.735647 -0.670102 
-0.505684 0.026110 -0.185113 -0.242125 -0.609673 0.754768 
-0.532517 0.146539 -0.234216 0.294798 0.801258 -0.520653 
-0.538710 0.128122 -0.245494 0.036608 0.193560 -0.980405 
-0.535175 0.061226 -0.247132 -0.392662 0.022831 -0.919399 
-0.525313 0.144749 -0.138042 -0.219702 0.928056 0.300737 
-0.438762 0.157353 -0.151329 0.241700 0.931377 0.272248 
-0.504122 0.175172 -0.195139 -0.739303 0.623794 0.253598 
